2.425888061523 -2.218826055527 -2.462479114532 156 149 105 -1308.00000000
2.340987920761 -2.049973011017 -2.378341913223 249 246 201 -1044.00000000
2.462081909180 -2.037185907364 -2.423079967499 147 158 115 -1232.00000000
2.707747936249 -2.412612915039 -2.468581914902 193 202 145 -1324.00000000
2.592575073242 -2.413315057755 -2.462966918945 181 190 135 -1249.00000000
2.525345087051 -2.333084106445 -2.476089000702 167 197 127 -1301.00000000
2.812423944473 -2.406692981720 -2.483688116074 215 218 147 -1293.00000000
2.909317016602 -2.376143932343 -2.478072881699 173 206 149 -1260.00000000
2.976700067520 -2.144515991211 -2.405930042267 184 197 145 -1203.00000000
2.871140003204 -2.001082897186 -2.415939092636 253 254 222 -1224.00000000
2.967545032501 -2.038131952286 -2.401901006699 143 155 107 -1275.00000000
3.517257928848 -2.177292108536 -2.249984979630 214 203 124 -1158.00000000
3.247634887695 -2.657761096954 -2.509780883789 255 255 220 -1272.00000000
3.497452020645 -2.909133911133 -2.502883911133 212 230 154 -1268.00000000
3.368758916855 -2.751266002655 -2.502823114395 254 254 220 -1296.00000000
3.463912963867 -2.782912969589 -2.502791881561 255 254 223 -1276.00000000
3.091475963593 -2.536545038223 -2.521132946014 255 252 251 -1253.00000000
3.217178106308 -2.537703990936 -2.529221057892 224 252 193 -1275.00000000
3.342941045761 -2.626113891602 -2.507827997208 232 231 167 -1299.00000000
3.592972040176 -2.940323114395 -2.500076055527 180 184 125 -1294.00000000
3.979934930801 -2.922713994980 -2.501327991486 255 252 190 -1278.00000000
3.189285039902 -2.411209106445 -2.502731084824 255 252 242 -1278.00000000
3.090926885605 -2.438155889511 -2.540146112442 250 252 228 -1288.00000000
3.746231079102 -2.128189086914 -2.633559942245 87 93 58 -1196.00000000
3.990524053574 -2.252670049667 -2.632827997208 109 117 79 -1257.00000000
3.964157104492 -2.250747919083 -2.528182983398 150 158 109 -1073.00000000
3.621718883514 -2.035598993301 -2.632827997208 106 114 79 -1209.00000000
3.727097034454 -2.008559942245 -2.657303094864 252 251 236 -1244.00000000
3.592545032501 -2.006577014923 -2.525742053986 120 125 89 -986.00000000
3.686110973358 -2.080977916718 -2.563216924667 116 118 81 -1045.00000000
3.965744018555 -2.156357049942 -2.648972034454 137 149 103 -1293.00000000
3.843734979630 -2.189743041992 -2.634171009064 97 103 71 -1232.00000000
3.840621948242 -2.035964965820 -2.651169061661 156 167 117 -1303.00000000
3.963363885880 -2.038284063339 -2.654922008514 207 225 160 -1286.00000000
3.828598022461 -2.171370983124 -2.525374889374 134 141 98 -1104.00000000
3.218369007111 -2.912064075470 -2.435532093048 254 253 252 -1129.00000000
3.057022094727 -2.939865112305 -2.441268920898 243 243 192 -1272.00000000
3.068435907364 -2.750565052032 -2.436813116074 255 253 255 -982.00000000
3.097366094589 -2.845870971680 -2.453444957733 254 252 253 -1145.00000000
3.249038934708 -2.814132928848 -2.468857049942 209 233 175 -1267.00000000
3.377425909042 -2.925338983536 -2.437331914902 197 203 141 -1250.00000000
3.062241077423 -2.631210088730 -2.480300903320 237 243 173 -1270.00000000
3.152266979218 -2.691940069199 -2.470382928848 150 165 122 -1288.00000000
3.468673944473 -2.660933971405 -2.466475963593 223 210 166 -1219.00000000
3.368607044220 -2.533463001251 -2.463759899139 168 165 122 -1358.00000000
3.479842901230 -2.563095092773 -2.448714971542 152 155 109 -1367.00000000
3.740401983261 -2.630050897598 -2.403975963593 219 231 155 -1222.00000000
3.748367071152 -2.908066034317 -2.430861949921 167 166 109 -1263.00000000
3.619888067245 -2.785294055939 -2.455032110214 85 90 57 -1312.00000000
3.710891962051 -2.814285039902 -2.420761108398 170 174 122 -1335.00000000
3.871323108673 -2.907303094864 -2.483809947968 250 250 180 -1195.00000000
3.865097045898 -2.755692005157 -2.406234979630 255 253 213 -1204.00000000
3.921859979630 -2.813796997070 -2.473006963730 192 204 140 -1206.00000000
3.994553089142 -2.844466924667 -2.410384893417 223 233 163 -1099.00000000
3.999404907227 -2.794388055801 -2.309218883514 155 142 108 -1317.00000000
3.558974981308 -2.704665899277 -2.457290887833 156 163 127 -1381.00000000
3.624862909317 -2.627274036407 -2.446304082870 255 250 224 -1314.00000000
3.684737920761 -2.708328008652 -2.436873912811 132 126 93 -1371.00000000
3.578232049942 -2.537703990936 -2.398972034454 137 149 103 -1298.00000000
3.712723016739 -2.538405895233 -2.308304071426 181 190 137 -1272.00000000
3.966140985489 -2.507766962051 -2.383408069611 172 189 134 -1280.00000000
3.871628046036 -2.627609014511 -2.308212041855 254 253 248 -1140.00000000
3.932419061661 -2.706588983536 -2.338393926620 148 148 104 -1224.00000000
3.973098993301 -2.630417108536 -2.281754016876 144 147 105 -1296.00000000
3.810225963593 -2.507308959961 -2.315201044083 208 218 157 -1183.00000000
3.090805053711 -2.251754999161 -2.466293096542 180 187 120 -1309.00000000
3.060988903046 -2.345657110214 -2.493240118027 151 171 120 -1308.00000000
3.244735956192 -2.257735967636 -2.403914928436 123 123 84 -1018.00000000
3.168167114258 -2.314224004745 -2.477706909180 143 155 109 -1298.00000000
3.214035034180 -2.250504016876 -2.305160999298 207 217 158 -1272.00000000
3.442092895508 -2.431442022324 -2.394699096680 240 244 183 -1213.00000000
3.338851928711 -2.408127069473 -2.401077032089 236 233 166 -1127.00000000
3.280776977539 -2.472275018692 -2.465713977814 181 181 121 -1217.00000000
3.277694940567 -2.348618030548 -2.465073108673 168 179 128 -1268.00000000
3.499557018280 -2.408706903458 -2.274094104767 152 164 122 -1272.00000000
3.390213012695 -2.384841918945 -2.318283081055 251 250 197 -1265.00000000
3.338150024414 -2.282393932343 -2.310959100723 197 221 150 -1306.00000000
3.440963983536 -2.313247919083 -2.266341924667 103 93 68 -1376.00000000
3.109116077423 -2.189193964005 -2.383316040039 138 132 82 -982.00000000
3.117934942245 -2.037673950195 -2.376571893692 111 118 85 -1329.00000000
3.214766979218 -2.005875110626 -2.384262084961 198 193 151 -1301.00000000
3.149368047714 -2.125289916992 -2.316452026367 255 254 232 -1118.00000000
3.249526977539 -2.142287969589 -2.329514026642 126 135 103 -1250.00000000
3.316421985626 -2.001022100449 -2.375137090683 171 177 127 -1232.00000000
3.372359991074 -2.156539916992 -2.323502063751 180 198 137 -1150.00000000
3.467941045761 -2.125076055527 -2.331984996796 179 175 129 -1301.00000000
3.405930042267 -2.037307977676 -2.343369007111 210 225 165 -1186.00000000
3.490767955780 -2.258255004883 -2.195358037949 255 252 240 -1257.00000000
3.557204961777 -2.471236944199 -2.326950073242 252 250 201 -1191.00000000
3.613265991211 -2.383713006973 -2.283585071564 255 252 249 -1085.00000000
3.718369007111 -2.407882928848 -2.297133922577 171 162 115 -1203.00000000
3.622208118439 -2.286606073380 -2.253647089005 255 253 250 -1124.00000000
3.678940057755 -2.313095092773 -2.336807012558 254 251 240 -1165.00000000
3.874404907227 -2.411606073380 -2.376266002655 167 174 120 -1265.00000000
3.997452020645 -2.411361932755 -2.411118030548 167 178 120 -1278.00000000
3.840744018555 -2.285964965820 -2.386734008789 255 253 223 -1121.00000000
3.962874889374 -2.283767938614 -2.404525995255 172 167 103 -1381.00000000
3.745773077011 -2.131392955780 -2.379561901093 208 215 150 -1157.00000000
3.621779918671 -2.033278942108 -2.384414911270 175 177 133 -1206.00000000
3.746901988983 -2.068588018417 -2.478043079376 105 109 75 -1057.00000000
3.554030895233 -2.192398071289 -2.342606067657 119 131 93 -1275.00000000
3.655075073242 -2.190231084824 -2.331161022186 143 138 101 -1327.00000000
3.749007940292 -2.241898059845 -2.371840953827 176 185 130 -1258.00000000
3.512557983398 -2.035537958145 -2.325393915176 255 251 251 -1160.00000000
3.890883922577 -2.182662963867 -2.436568975449 255 252 241 -445.00000000
0.947494983673 -1.166031002998 -2.022475957870 247 235 185 -1096.00000000
0.946547985077 -1.663437008858 -2.143234014511 97 101 73 -1288.00000000
0.895431995392 -1.910750985146 -2.405106067657 97 98 64 -1275.00000000
0.955062985420 -1.764847040176 -2.403151988983 166 175 124 -1178.00000000
0.874343991280 -1.913895010948 -2.301131963730 105 114 83 -1253.00000000
0.943466007710 -1.758437991142 -2.279190063477 120 112 79 -1180.00000000
0.993362009525 -1.661026000977 -2.276290893555 184 192 139 -1088.00000000
0.746689021587 -1.910843014717 -2.001511096954 122 143 102 -1294.00000000
0.838088989258 -1.910048961639 -2.154067993164 195 202 149 -1101.00000000
0.868362009525 -1.785964965820 -2.156173944473 209 217 159 -1221.00000000
0.756148993969 -1.975051999092 -2.086807012558 205 206 146 -1070.00000000
0.820999026299 -1.760239005089 -2.026932001114 227 222 159 -1140.00000000
0.798080027103 -1.860092043877 -2.074661016464 101 113 67 -1268.00000000
0.963638007641 -1.531326055527 -2.133865118027 165 135 110 -1022.00000000
0.838303029537 -1.658156991005 -2.021193981171 190 187 132 -1163.00000000
0.870132029057 -1.563125967979 -2.004561901093 245 240 176 -1203.00000000
0.988265991211 -1.510452032089 -2.038284063339 102 117 86 -859.00000000
0.962265014648 -1.413558959961 -2.024429082870 139 119 84 -1132.00000000
0.949874997139 -1.281448006630 -2.030715942383 217 220 143 -1124.00000000
0.990218997002 -1.045302987099 -2.018387079239 109 124 83 -1136.00000000
1.997910022736 -1.411178946495 -2.437241077423 134 127 85 -1247.00000000
1.457352042198 -1.667404055595 -2.500747919083 114 128 93 -1278.00000000
1.199020028114 -1.890457034111 -2.516768932343 186 185 131 -1090.00000000
1.045974969864 -1.828873038292 -2.502547979355 119 124 83 -1060.00000000
1.315994024277 -1.906509041786 -2.508101940155 119 126 75 -1103.00000000
1.342514038086 -1.784713983536 -2.505111932755 96 104 81 -1350.00000000
1.341354012489 -1.678725957870 -2.500716924667 152 155 110 -1276.00000000
1.715499997139 -1.533278942108 -2.524307012558 101 102 71 -1175.00000000
1.592483997345 -1.537124991417 -2.507889032364 134 151 107 -1209.00000000
1.642227053642 -1.500319957733 -2.587387084961 80 87 56 -1281.00000000
1.966506958008 -1.662857055664 -2.516860961914 198 217 153 -1296.00000000
1.871871948242 -1.628036022186 -2.501419067383 82 100 58 -1191.00000000
1.765975952148 -1.503188967705 -2.610976934433 80 96 67 -1229.00000000
1.839859008789 -1.531265020370 -2.527115106583 123 130 89 -1155.00000000
1.967300057411 -1.560317993164 -2.527724981308 255 253 234 -1208.00000000
1.247238039970 -1.170333981514 -2.529006958008 67 77 52 -1244.00000000
1.496322989464 -1.406844973564 -2.518508911133 111 117 81 -1188.00000000
1.341536998749 -1.289474010468 -2.500931024551 107 106 75 -1229.00000000
1.468490958214 -1.287215948105 -2.554030895233 159 152 108 -1278.00000000
1.246688961983 -1.054885983467 -2.503463983536 88 93 71 -1298.00000000
1.498031973839 -1.004227042198 -2.632889032364 94 110 74 -1291.00000000
1.371688961983 -1.199172973633 -2.550400018692 111 111 75 -1240.00000000
1.468032956123 -1.161942005157 -2.525619983673 142 154 104 -1231.00000000
1.335708975792 -1.043624997139 -2.560256958008 73 72 54 -1255.00000000
1.434981942177 -1.071486949921 -2.579757928848 143 169 124 -1270.00000000
1.695602059364 -1.160567998886 -2.653609991074 120 135 92 -1268.00000000
1.713088989258 -1.377701044083 -2.629165887833 116 136 87 -1267.00000000
1.684677004814 -1.267838001251 -2.631088018417 90 100 63 -1201.00000000
1.585433959961 -1.413619995117 -2.568344116211 77 95 47 -1283.00000000
1.569473028183 -1.281815052032 -2.559371948242 255 254 253 -1158.00000000
1.656998038292 -1.335922002792 -2.549545049667 153 166 123 -1239.00000000
1.940078973770 -1.408736944199 -2.645339965820 80 85 53 -1204.00000000
1.862136960030 -1.471145987511 -2.632004022598 93 113 76 -1206.00000000
1.812607049942 -1.380996942520 -2.648514032364 128 130 90 -1293.00000000
1.789597034454 -1.252944946289 -2.657119989395 183 190 139 -1240.00000000
1.968703985214 -1.283859014511 -2.657730102539 112 119 78 -1270.00000000
1.920516967773 -1.446975946426 -2.552047967911 123 135 90 -1181.00000000
1.593032956123 -1.128829956055 -2.627028942108 177 196 141 -1170.00000000
1.619034051895 -1.002670049667 -2.645065069199 179 189 136 -1270.00000000
1.712936043739 -1.038375973701 -2.654587030411 177 196 140 -1306.00000000
1.967758059502 -1.156661987305 -2.669357061386 160 180 125 -1270.00000000
1.811508059502 -1.128952026367 -2.664840936661 130 135 94 -1281.00000000
1.889420032501 -1.222977042198 -2.661330938339 170 171 111 -1319.00000000
1.807816028595 -1.003769040108 -2.660964965820 195 204 141 -1247.00000000
1.964553952217 -1.037003040314 -2.668227910995 176 193 141 -1291.00000000
1.216171026230 -1.782608032227 -2.496352910995 144 147 104 -1304.00000000
1.366897940636 -1.885390996933 -2.423415899277 142 153 110 -1085.00000000
1.458083987236 -1.781784057617 -2.400832891464 118 124 78 -1147.00000000
1.467239022255 -1.922255992889 -2.307967901230 135 157 95 -1262.00000000
1.210158944130 -1.663437008858 -2.492660999298 138 136 98 -1327.00000000
1.004348993301 -1.667129993439 -2.400681018829 171 177 132 -1162.00000000
1.075606942177 -1.726516962051 -2.485915899277 103 106 77 -1306.00000000
1.063858032227 -1.532974004745 -2.395493030548 162 169 116 -1132.00000000
1.217758059502 -1.537186026573 -2.490036010742 163 175 125 -1242.00000000
1.111984014511 -1.505996942520 -2.275284051895 122 131 88 -1226.00000000
1.027266979218 -1.567734003067 -2.296767950058 240 254 167 -1103.00000000
1.340407967567 -1.539199948311 -2.493637084961 198 208 155 -1242.00000000
1.464676022530 -1.537642955780 -2.496170043945 191 198 144 -1290.00000000
1.046890020370 -1.663192987442 -2.143050909042 255 255 246 -1158.00000000
1.018661022186 -1.506911993027 -2.216079950333 151 156 110 -1201.00000000
1.717087030411 -1.931625008583 -2.249953985214 255 253 252 -1188.00000000
1.555739998817 -1.879654049873 -2.287276983261 190 204 155 -1222.00000000
1.541916012764 -1.790390014648 -2.338424921036 213 213 151 -1227.00000000
1.717514038086 -1.785781979561 -2.290421009064 193 202 136 -1270.00000000
1.998581051826 -1.752243041992 -2.392441034317 116 133 86 -1044.00000000
1.809097051620 -1.877303957939 -2.266707897186 234 246 183 -1226.00000000
1.966109991074 -1.910171985626 -2.299515008926 207 230 172 -1239.00000000
1.812301993370 -1.753188967705 -2.297867059708 254 255 212 -1244.00000000
1.928542971611 -1.774642944336 -2.312607049942 219 243 197 -1290.00000000
1.578292965889 -1.629683971405 -2.391983032227 123 138 97 -1104.00000000
1.713668942451 -1.559494018555 -2.400557994843 100 102 62 -1055.00000000
1.620895028114 -1.719223022461 -2.338057994843 249 242 160 -1176.00000000
1.718369007111 -1.688918948174 -2.324996948242 132 143 105 -1268.00000000
1.890761971474 -1.671494007111 -2.401596069336 198 221 169 -1206.00000000
1.801895022392 -1.589859008789 -2.437668085098 145 152 110 -1063.00000000
1.803756952286 -1.645308971405 -2.353409051895 156 177 121 -1193.00000000
1.128188967705 -1.173447012901 -2.217330932617 255 247 197 -1237.00000000
1.136916995049 -1.407058954239 -2.403487920761 245 246 174 -998.00000000
1.243880987167 -1.299667000771 -2.383040904999 60 56 38 -1137.00000000
1.180618047714 -1.334854006767 -2.460251092911 146 152 115 -1191.00000000
1.068192005157 -1.409348011017 -2.279036998749 69 64 45 -1073.00000000
1.201218008995 -1.417618036270 -2.251907110214 201 159 150 -973.00000000
1.120406985283 -1.286239981651 -2.260056018829 63 67 42 -1322.00000000
1.328444957733 -1.419937014580 -2.492995977402 196 213 158 -1211.00000000
1.203781008720 -1.162888050079 -2.401290893555 160 171 119 -1211.00000000
1.192123055458 -1.042770028114 -2.393906116486 173 169 107 -1032.00000000
1.149917960167 -1.219558954239 -2.329329967499 88 88 64 -1154.00000000
1.198837041855 -1.131088018417 -2.278518915176 230 205 141 -1022.00000000
1.120712041855 -1.082198977470 -2.323287963867 115 111 73 -1147.00000000
1.172440052032 -1.000777959824 -2.287552118301 155 183 132 -1047.00000000
1.091171026230 -1.421524047852 -2.125838994980 98 113 80 -642.00000000
1.084702014923 -1.292160034180 -2.146193981171 239 211 172 -1065.00000000
1.129868030548 -1.364516973495 -2.198410034180 226 204 154 -1275.00000000
1.012099981308 -1.350327014923 -2.104476928711 65 70 50 -1232.00000000
1.030441045761 -1.193343997002 -2.125197887421 135 132 97 -1145.00000000
1.086562991142 -1.032974004745 -2.155045032501 246 250 191 -867.00000000
1.187576055527 -1.019515991211 -2.094039916992 90 102 56 -1002.00000000
0.999953985214 -0.921248972416 -2.013657093048 218 202 151 -1022.00000000
1.675461053848 -0.224502995610 -2.137772083282 77 78 60 -1706.00000000
1.466721057892 -0.661239981651 -2.668625116348 82 79 58 -1291.00000000
1.459426999092 -0.908249020576 -2.642379999161 131 136 96 -1260.00000000
1.363479971886 -0.876906991005 -2.626877069473 43 49 34 -1253.00000000
1.369492053986 -0.773361027241 -2.626266002655 107 114 85 -1275.00000000
1.463364005089 -0.783339977264 -2.662978887558 133 133 93 -1324.00000000
1.321671009064 -0.889541983604 -2.526412963867 216 228 165 -1101.00000000
1.400313973427 -0.964187979698 -2.580550909042 115 120 88 -1357.00000000
1.338698983192 -0.783523976803 -2.525008916855 254 253 223 -1047.00000000
1.454085946083 -0.534865975380 -2.649429082870 118 128 89 -1231.00000000
1.372329950333 -0.657639026642 -2.528244018555 195 202 138 -1080.00000000
1.405715942383 -0.536575019360 -2.530502080917 154 161 115 -1165.00000000
1.704514026642 -0.666153013706 -2.681319952011 254 253 250 -1168.00000000
1.706405997276 -0.912064015865 -2.655776977539 195 209 148 -1258.00000000
1.558944940567 -0.919479012489 -2.647263050079 147 163 116 -1258.00000000
1.591323971748 -0.783737003803 -2.665604114532 168 193 131 -1245.00000000
1.712448000908 -0.786330997944 -2.669936895370 233 244 187 -1214.00000000
1.963242053986 -0.912856996059 -2.668869018555 224 245 186 -1219.00000000
1.805495977402 -0.879013001919 -2.661696910858 240 248 191 -1196.00000000
1.810593008995 -0.765671014786 -2.667221069336 244 252 199 -1199.00000000
1.962600946426 -0.786026000977 -2.676589965820 224 236 190 -1221.00000000
1.588181018829 -0.656997978687 -2.680222034454 255 252 219 -1252.00000000
1.580368041992 -0.546187996864 -2.686783075333 95 95 64 -1304.00000000
1.680801033974 -0.566726982594 -2.688858032227 163 179 131 -1255.00000000
1.959732055664 -0.663466989994 -2.686661005020 213 231 176 -1209.00000000
1.839920043945 -0.659987986088 -2.674637079239 252 255 221 -1224.00000000
1.793259024620 -0.564468026161 -2.696425914764 122 141 99 -1322.00000000
1.903151988983 -0.569442987442 -2.691116094589 161 174 133 -1237.00000000
1.997238039970 -0.534348011017 -2.693496942520 219 227 176 -1208.00000000
1.499465942383 -0.225722998381 -2.505599975586 72 75 56 -1073.00000000
1.499068975449 -0.423599004745 -2.644730091095 122 128 93 -1214.00000000
1.455245971680 -0.413192987442 -2.525742053986 252 250 246 -879.00000000
1.631453990936 -0.175766006112 -2.651566028595 252 253 245 -1060.00000000
1.878188967705 -0.221725001931 -2.753098011017 255 255 220 -1209.00000000
1.728836059570 -0.429428011179 -2.717757940292 255 253 245 -1226.00000000
1.584274053574 -0.438827991486 -2.701613903046 94 103 72 -1309.00000000
1.570907950401 -0.282577991486 -2.655502080917 201 207 143 -1140.00000000
1.695785999298 -0.296310007572 -2.713454961777 251 250 193 -1234.00000000
1.509781002998 -0.338425010443 -2.587296009064 128 132 91 -1231.00000000
1.960831046104 -0.406783998013 -2.727921009064 255 251 240 -1235.00000000
1.833022952080 -0.427322000265 -2.722945928574 255 252 252 -1211.00000000
1.830855965614 -0.325150012970 -2.734755992889 251 253 185 -1301.00000000
1.979446053505 -0.299026012421 -2.734390020370 255 255 218 -1257.00000000
1.716385006905 -0.189101994038 -2.720839977264 223 230 170 -1260.00000000
1.687636971474 -0.009597999975 -2.639084100723 169 173 122 -1145.00000000
1.679641962051 -0.086166001856 -2.706741094589 157 175 123 -1232.00000000
1.563735961914 -0.125258997083 -2.526839971542 217 226 161 -1070.00000000
1.623855948448 -0.043715998530 -2.526169061661 255 255 209 -1134.00000000
1.969650030136 -0.167403995991 -2.675307989120 255 255 194 -1104.00000000
1.831557989120 -0.135239005089 -2.729934930801 198 194 134 -1244.00000000
1.874863028526 -0.110367000103 -2.637619018555 195 195 134 -1052.00000000
1.963394045830 -0.129562005401 -2.580887079239 156 164 126 -1206.00000000
1.837753057480 -0.038924999535 -2.547591924667 137 140 104 -1134.00000000
1.935531973839 -0.009506000206 -2.578598022461 118 119 88 -1265.00000000
1.245772957802 -0.662521004677 -2.144608020782 247 246 204 -711.00000000
1.207412958145 -0.916396975517 -2.405196905136 242 246 178 -1096.00000000
1.249709963799 -0.752822995186 -2.376082897186 184 199 136 -1034.00000000
1.209915041924 -0.876937985420 -2.275954961777 115 102 58 -1085.00000000
1.263015985489 -0.837296009064 -2.444777965546 205 200 137 -1196.00000000
1.317276000977 -0.803116023540 -2.274581909180 66 79 53 -830.00000000
1.319962024689 -0.666213989258 -2.398544073105 102 124 64 -1010.00000000
1.341781973839 -0.545822024345 -2.380356073380 237 242 183 -879.00000000
1.277145028114 -0.684401988983 -2.259201049805 70 74 51 -1047.00000000
1.331833004951 -0.539017021656 -2.278914928436 210 220 167 -896.00000000
1.466964960098 -0.531997978687 -2.254348993301 233 207 176 -822.00000000
1.209121942520 -0.918747007847 -2.140944957733 84 94 59 -752.00000000
1.193222045898 -0.791580021381 -2.152023077011 255 255 208 -859.00000000
1.087967038155 -0.961319029331 -2.081954956055 248 255 204 -1090.00000000
1.091323971748 -0.784072995186 -2.025650024414 102 99 68 -1068.00000000
1.190444946289 -0.803786993027 -2.005935907364 221 196 139 -744.00000000
1.140944957733 -0.858382999897 -2.081527948380 224 230 182 -1018.00000000
1.085983037949 -0.659958004951 -2.004898071289 166 121 64 -1158.00000000
1.218215942383 -0.659439027309 -2.017592906952 143 148 107 -306.00000000
1.162582039833 -0.724747002125 -2.070816040039 220 209 145 -1039.00000000
1.233108997345 -0.547348022461 -2.022751092911 129 125 73 -986.00000000
1.135056018829 -0.572768986225 -2.011490106583 119 107 57 -1095.00000000
1.331161022186 -0.535202026367 -2.146866083145 113 121 70 -568.00000000
1.259688973427 -0.580947995186 -2.219985961914 154 178 122 -900.00000000
1.328536987305 -0.508804023266 -2.004868030548 175 176 98 -228.00000000
1.204727053642 -0.175521999598 -2.018356084824 203 200 137 -1239.00000000
1.424759030342 -0.420913994312 -2.399338006973 149 162 117 -924.00000000
1.462967038155 -0.287979006767 -2.402023077011 87 108 74 -1330.00000000
1.373337030411 -0.381240993738 -2.259871959686 86 98 74 -1221.00000000
1.466019034386 -0.415268003941 -2.281569957733 137 160 116 -1203.00000000
1.401168942451 -0.286087006330 -2.279342889786 118 123 91 -1204.00000000
1.498366951942 -0.165603995323 -2.387954950333 250 250 234 -1062.00000000
1.443282961845 -0.139786005020 -2.273605108261 156 172 116 -1062.00000000
1.492447018623 -0.033615000546 -2.276627063751 92 109 74 -1068.00000000
1.212784051895 -0.411484003067 -2.008377075195 255 251 188 -1075.00000000
1.215286016464 -0.288742005825 -2.021956920624 252 242 175 -1083.00000000
1.383864998817 -0.376877009869 -2.153121948242 208 199 150 -1041.00000000
1.373337030411 -0.250229001045 -2.169083118439 157 154 109 -1196.00000000
1.280441045761 -0.442734003067 -2.101303100586 188 194 128 -1193.00000000
1.293838977814 -0.344345003366 -2.069626092911 226 240 170 -1217.00000000
1.467270016670 -0.288650989532 -2.015487909317 124 162 113 -1303.00000000
1.477645993233 -0.178818002343 -2.141129016876 112 126 93 -1250.00000000
1.443680047989 -0.049759000540 -2.125534057617 210 193 149 -1080.00000000
1.365280032158 -0.164290994406 -2.021895885468 246 234 172 -1126.00000000
1.311661005020 -0.236892998219 -2.066910028458 236 227 174 -1114.00000000
1.466323971748 -0.174911007285 -2.011887073517 205 205 130 -191.00000000
1.364151000977 -0.050765998662 -2.056380987167 156 152 97 -1088.00000000
1.490401983261 -0.054092001170 -2.029891967773 247 248 178 -850.00000000
1.704941034317 -0.174759000540 -2.237045049667 71 87 60 -1458.00000000
1.517624020576 -0.352371007204 -2.343978881836 101 102 71 -1113.00000000
1.571732044220 -0.004073999822 -2.435501098633 234 236 199 -1085.00000000
1.561233997345 -0.094772003591 -2.345412969589 90 80 58 -936.00000000
1.624619007111 -0.085860997438 -2.260086059570 74 74 55 -1122.00000000
1.689651012421 -0.093947999179 -2.351912975311 248 255 202 -424.00000000
1.650436043739 -0.004044000059 -2.313522100449 201 214 156 -1363.00000000
1.796309947968 -0.035507000983 -2.297072887421 154 152 103 -1232.00000000
1.586838006973 -0.212234005332 -2.233870983124 160 179 133 -1059.00000000
1.547623038292 -0.101181000471 -2.195724010468 144 149 95 -1183.00000000
1.715438961983 -0.092208996415 -2.181350946426 98 98 70 -1353.00000000
1.580093026161 -0.027877999470 -2.082747936249 154 152 95 -650.00000000
2.626296997070 -1.418655037880 -2.436110973358 130 150 99 -1165.00000000
3.989882946014 -0.137527003884 -3.001389026642 255 253 248 -1272.00000000
3.997603893280 -0.007156000007 -3.000350952148 255 254 252 -1232.00000000
2.213088989258 -1.661208987236 -2.530654907227 134 148 103 -1308.00000000
2.245162963867 -1.875319957733 -2.515701055527 113 119 83 -1296.00000000
2.124649047852 -1.785477042198 -2.524338006973 149 168 122 -1272.00000000
2.249099969864 -1.755996942520 -2.533828973770 103 106 84 -1329.00000000
2.462387084961 -1.910598993301 -2.518356084824 100 109 85 -1129.00000000
2.342818975449 -1.913589000702 -2.523452997208 155 163 119 -1309.00000000
2.346541881561 -1.813277959824 -2.526199102402 134 153 112 -1362.00000000
2.433516979218 -1.766494989395 -2.509871959686 116 125 91 -1332.00000000
2.076828002930 -1.682662963867 -2.530533075333 164 177 121 -1314.00000000
2.082657098770 -1.537521004677 -2.516067981720 132 139 95 -1273.00000000
2.192825078964 -1.561965942383 -2.500289916992 127 137 96 -1232.00000000
2.322678089142 -1.679214000702 -2.511153936386 254 252 237 -1077.00000000
2.968521118164 -1.628798961639 -2.629379034042 104 106 69 -1132.00000000
2.691147089005 -1.928115963936 -2.508011102676 254 251 200 -1255.00000000
2.587387084961 -1.913375973701 -2.507889032364 251 250 219 -1260.00000000
2.838363885880 -1.532546997070 -2.649033069611 74 77 50 -1095.00000000
2.933578014374 -1.504776000977 -2.674300909042 186 183 128 -1298.00000000
2.967238903046 -1.658401012421 -2.524490118027 130 137 96 -1127.00000000
2.874161005020 -1.533890008926 -2.527115106583 152 147 109 -1041.00000000
2.212723016739 -1.162857055664 -2.684952020645 183 198 136 -1235.00000000
2.093521118164 -1.282883048058 -2.648726940155 117 126 89 -1165.00000000
2.195450067520 -1.250107049942 -2.633040904999 132 136 99 -1039.00000000
2.006607055664 -1.379012942314 -2.572678089142 124 128 91 -953.00000000
2.117110967636 -1.288741946220 -2.527328014374 159 178 127 -1059.00000000
2.468063116074 -1.295302987099 -2.651962041855 102 105 74 -1104.00000000
2.365494012833 -1.256790041924 -2.651688098907 131 136 96 -1078.00000000
2.335006952286 -1.257156014442 -2.527481079102 107 116 72 -846.00000000
2.466140985489 -1.293380975723 -2.530257940292 238 241 168 -1122.00000000
2.087111949921 -1.161331057549 -2.675827026367 144 157 113 -1258.00000000
2.089523077011 -1.038254022598 -2.686965942383 140 147 110 -1260.00000000
2.245986938477 -1.063704967499 -2.692122936249 194 203 149 -1260.00000000
2.213546991348 -1.241440057755 -2.526015996933 158 168 123 -936.00000000
2.339157104492 -1.161391973495 -2.695601940155 159 172 119 -1294.00000000
2.436965942383 -1.204391002655 -2.704238891602 240 243 215 -1244.00000000
2.364455938339 -1.064041018486 -2.704117059708 167 175 116 -1244.00000000
2.465713977814 -1.098831057549 -2.709671020508 181 201 140 -1257.00000000
2.499373912811 -1.001662969589 -2.719711065292 255 255 226 -1154.00000000
2.718460083008 -1.184798955917 -2.686080932617 143 160 102 -1301.00000000
2.711136102676 -1.413192987442 -2.652236938477 94 90 65 -1150.00000000
2.617507934570 -1.375198006630 -2.644332885742 89 93 68 -1136.00000000
2.560745000839 -1.284682989120 -2.703780889511 146 163 116 -1288.00000000
2.707259893417 -1.287703990936 -2.680283069611 136 142 98 -1322.00000000
2.716293096542 -1.413650989532 -2.525527954102 117 131 95 -957.00000000
2.544570922852 -1.334151983261 -2.587692022324 116 125 82 -1026.00000000
2.624038934708 -1.370010018349 -2.534926891327 110 106 69 -1047.00000000
2.840042114258 -1.407088994980 -2.673660039902 119 127 86 -1334.00000000
2.966811895370 -1.383713006973 -2.688431024551 252 251 201 -1272.00000000
2.843460083008 -1.288527965546 -2.681564092636 172 189 137 -1293.00000000
2.965408086777 -1.285262942314 -2.650496959686 241 241 189 -1312.00000000
2.779006958008 -1.472275018692 -2.590012073517 144 155 113 -871.00000000
2.593094110489 -1.161391973495 -2.712357044220 183 195 145 -1262.00000000
2.593123912811 -1.061172008514 -2.718245983124 163 170 118 -1234.00000000
2.745955944061 -1.050521969795 -2.681534051895 255 250 250 -805.00000000
2.671158075333 -1.002547979355 -2.744522094727 207 223 160 -1260.00000000
2.958481073380 -1.163100957870 -2.654769897461 230 245 186 -1193.00000000
2.840378046036 -1.160964965820 -2.685988903046 229 236 212 -1335.00000000
2.874434947968 -1.058791995049 -2.686873912811 132 142 105 -1296.00000000
2.991959095001 -1.065170049667 -2.703505992889 162 176 124 -1299.00000000
2.216232061386 -1.881453990936 -2.404342889786 195 211 139 -1122.00000000
2.090560913086 -1.814560055733 -2.399887084961 141 168 117 -1209.00000000
2.089339971542 -1.909682989120 -2.311599969864 191 206 150 -1213.00000000
2.218154907227 -1.913741946220 -2.307723999023 225 228 164 -1208.00000000
2.019150018692 -1.828415036201 -2.323318004608 237 251 205 -1226.00000000
2.384932994843 -1.973343014717 -2.437149047852 251 251 213 -1129.00000000
2.305495977402 -1.933364987373 -2.376785039902 192 204 141 -1219.00000000
2.418930053711 -1.782210946083 -2.378921985626 118 126 85 -1106.00000000
2.101851940155 -1.500991940498 -2.423873901367 249 251 231 -1063.00000000
2.248488903046 -1.600388050079 -2.416030883789 251 249 211 -867.00000000
2.211441040039 -1.544388055801 -2.304398059845 147 154 99 -1206.00000000
2.466751098633 -1.680922985077 -2.385544061661 254 251 230 -1041.00000000
2.328811883926 -1.663985967636 -2.403548955917 246 248 189 -965.00000000
2.258193969727 -1.503646969795 -2.385665893555 201 214 152 -764.00000000
2.370223999023 -1.626816034317 -2.307754993439 251 250 227 -1198.00000000
2.309036016464 -1.532333016396 -2.274826049805 180 190 137 -1265.00000000
2.465651988983 -1.541061043739 -2.307327032089 161 174 130 -1168.00000000
2.738082885742 -1.731461048126 -2.375015020370 244 243 212 -1226.00000000
2.744307994843 -1.882827997208 -2.406173944473 255 248 186 -1249.00000000
2.587172985077 -1.786301016808 -2.401717901230 186 202 153 -1155.00000000
2.513657093048 -1.828505992889 -2.478378057480 108 110 81 -1312.00000000
2.648849010468 -1.854935050011 -2.454360961914 119 118 79 -1312.00000000
2.957565069199 -1.911880016327 -2.417037963867 246 241 197 -1306.00000000
2.772567987442 -1.971634030342 -2.447463989258 255 245 191 -1127.00000000
2.842636108398 -1.903030037880 -2.416640996933 136 141 95 -1334.00000000
2.837692022324 -1.788985967636 -2.404922008514 181 185 134 -1255.00000000
2.957717895508 -1.788712024689 -2.430007934570 127 136 91 -1309.00000000
2.578171014786 -1.659438967705 -2.405167102814 94 97 73 -1144.00000000
2.523636102676 -1.723464965820 -2.464066028595 229 226 159 -1158.00000000
2.590805053711 -1.531509041786 -2.392287969589 125 152 111 -1303.00000000
2.717238903046 -1.535385012627 -2.398696899414 144 170 123 -1206.00000000
2.621628046036 -1.719344973564 -2.334824085236 235 231 160 -1206.00000000
2.680740118027 -1.625076055527 -2.345077991486 118 122 86 -1308.00000000
2.816910028458 -1.668472051620 -2.399368047714 255 255 250 -1116.00000000
2.917679071426 -1.694138050079 -2.437789916992 106 126 75 -1185.00000000
2.842209100723 -1.570937991142 -2.438034057617 249 248 218 -1093.00000000
2.212021112442 -1.248855948448 -2.405807018280 162 165 115 -1203.00000000
2.091964960098 -1.311385989189 -2.403090953827 130 135 97 -1124.00000000
2.091324090958 -1.412155032158 -2.339797973633 132 145 116 -1209.00000000
2.215500116348 -1.413375973701 -2.308578014374 253 255 217 -1150.00000000
2.173721075058 -1.329360961914 -2.348129034042 185 190 139 -1240.00000000
2.466079950333 -1.412490963936 -2.385818004608 142 154 106 -1193.00000000
2.336807012558 -1.381423950195 -2.386641979218 168 180 130 -1157.00000000
2.311783075333 -1.258468985558 -2.410233020782 163 174 117 -1152.00000000
2.419723987579 -1.285537958145 -2.438735961914 183 183 131 -1136.00000000
2.335372924805 -1.437973022461 -2.300582885742 196 218 167 -1226.00000000
2.557907104492 -1.345504999161 -2.446762084961 163 181 131 -1204.00000000
2.811417102814 -1.470412969589 -2.446120977402 128 146 98 -1124.00000000
3.238173961639 -1.662703990936 -2.655869007111 137 155 105 -1285.00000000
3.217056035995 -1.784042000771 -2.641159057617 102 106 69 -1178.00000000
3.090347051620 -1.754317998886 -2.503586053848 127 129 82 -1059.00000000
3.242934942245 -1.785171985626 -2.528305053711 171 185 136 -969.00000000
3.455916881561 -1.911270022392 -2.636063098907 109 118 75 -1276.00000000
3.355240106583 -1.875136971474 -2.625869989395 92 97 68 -1214.00000000
3.311873912811 -1.750046014786 -2.648178100586 152 162 109 -1245.00000000
3.468369007111 -1.785323977470 -2.641190052032 171 189 137 -1276.00000000
3.370804071426 -1.875504016876 -2.518538951874 137 147 105 -900.00000000
3.495070934296 -1.977187991142 -2.564713001251 57 63 46 -1150.00000000
3.091872930527 -1.665755987167 -2.655654907227 100 106 70 -1296.00000000
3.083389043808 -1.531357049942 -2.672501087189 99 107 60 -1314.00000000
3.217056035995 -1.541489005089 -2.672409057617 254 250 250 -1232.00000000
3.142592906952 -1.732620000839 -2.590133905411 104 113 70 -1068.00000000
3.465163946152 -1.662521004677 -2.650681018829 179 190 135 -1258.00000000
3.349196910858 -1.649368047714 -2.657150030136 255 253 245 -1239.00000000
3.331314086914 -1.531540036201 -2.664382934570 194 209 152 -1301.00000000
3.449630975723 -1.557723999023 -2.656112909317 249 247 187 -1226.00000000
3.706008911133 -1.659652948380 -2.665999889374 254 254 248 -1226.00000000
3.588242053986 -1.913254022598 -2.647629022598 179 186 137 -1314.00000000
3.684494018555 -1.884963989258 -2.657332897186 214 234 168 -1345.00000000
3.590775012970 -1.787673950195 -2.649550914764 210 228 169 -1304.00000000
3.692459106445 -1.782271981239 -2.655776977539 220 242 177 -1262.00000000
3.967087030411 -1.910416007042 -2.666367053986 207 222 159 -1298.00000000
3.834090948105 -1.908736944199 -2.659775018692 214 225 158 -1334.00000000
3.837935924530 -1.788833975792 -2.673355102539 255 254 252 -1193.00000000
3.959914922714 -1.784500002861 -2.680283069611 253 250 250 -1222.00000000
3.590621948242 -1.663833975792 -2.655472040176 204 213 157 -1317.00000000
3.593703985214 -1.531630992889 -2.664443969727 190 212 153 -1334.00000000
3.709548950195 -1.535477042198 -2.665146112442 215 228 165 -1291.00000000
3.962600946426 -1.660933971405 -2.680283069611 244 248 195 -1322.00000000
3.837111949921 -1.662765979767 -2.673599004745 219 233 171 -1335.00000000
3.838272094727 -1.537124991417 -2.675765991211 249 251 204 -1306.00000000
3.968002080917 -1.533951044083 -2.683151006699 246 251 195 -1340.00000000
3.218399047852 -1.164016962051 -2.685775995255 235 250 192 -1319.00000000
3.216018915176 -1.411697030067 -2.673079967499 184 192 145 -1301.00000000
3.079636096954 -1.416306018829 -2.680831909180 255 253 237 -1227.00000000
3.087418079376 -1.292191028595 -2.673202991486 255 253 251 -1129.00000000
3.218673944473 -1.285446047783 -2.678116083145 241 255 196 -1298.00000000
3.463150024414 -1.407027959824 -2.672836065292 184 198 150 -1311.00000000
3.342757940292 -1.412917971611 -2.674149036407 230 242 178 -1337.00000000
3.340958118439 -1.287796020508 -2.681380987167 181 205 145 -1337.00000000
3.465042114258 -1.288527965546 -2.674788951874 219 234 172 -1299.00000000
3.062392950058 -1.188827991486 -2.696059942245 254 252 249 -1294.00000000
3.119095087051 -1.099014043808 -2.695724010468 229 244 177 -1290.00000000
3.074630975723 -1.008743047714 -2.705123901367 226 240 178 -1317.00000000
3.217178106308 -1.062667965889 -2.698837041855 174 189 141 -1342.00000000
3.467636108398 -1.160446047783 -2.681595087051 218 229 174 -1309.00000000
3.336745977402 -1.161605954170 -2.687026977539 222 238 176 -1322.00000000
3.362106084824 -1.050734996796 -2.686965942383 237 242 191 -1322.00000000
3.466171026230 -1.031509041786 -2.687302112579 255 254 218 -1276.00000000
3.713699102402 -1.161453008652 -2.683334112167 251 248 237 -1232.00000000
3.694350957870 -1.410109996796 -2.652175903320 239 251 197 -1178.00000000
3.592636108398 -1.414016962051 -2.666610956192 224 240 179 -1293.00000000
3.592849969864 -1.287276983261 -2.679702997208 255 254 249 -1165.00000000
3.715224981308 -1.288985967636 -2.672713994980 252 252 211 -1263.00000000
3.965194940567 -1.411239981651 -2.686295032501 247 246 198 -1329.00000000
3.841506958008 -1.407668948174 -2.684279918671 255 252 255 -1199.00000000
3.843703985214 -1.288131952286 -2.679915904999 253 252 216 -1267.00000000
3.964157104492 -1.288100957870 -2.685561895370 248 249 201 -1227.00000000
3.588881969452 -1.161208987236 -2.680222034454 251 255 207 -1324.00000000
3.592178106308 -1.037888050079 -2.686141967773 254 252 223 -1232.00000000
3.696854114532 -1.063004016876 -2.692245006561 246 253 208 -1317.00000000
3.964890003204 -1.161605954170 -2.684586048126 252 250 197 -1235.00000000
3.842606067657 -1.162124991417 -2.681197881699 254 253 251 -1290.00000000
3.849472045898 -1.039901971817 -2.687331914902 254 253 228 -1250.00000000
3.961287975311 -1.033797979355 -2.683455944061 221 235 177 -1255.00000000
3.176254034042 -1.730880975723 -2.435683965683 254 252 241 -1260.00000000
3.210433959961 -1.906906008720 -2.400496959686 165 166 124 -1303.00000000
3.086533069611 -1.909103035927 -2.400345087051 147 149 109 -1306.00000000
3.054641962051 -1.814468026161 -2.427200078964 206 202 149 -1294.00000000
3.150863885880 -1.825515985489 -2.401657104492 164 183 123 -1160.00000000
3.248795032501 -1.813034057617 -2.418503046036 183 192 139 -1224.00000000
3.467636108398 -1.920791983604 -2.403151988983 130 125 83 -1290.00000000
3.309616088867 -1.895370006561 -2.417679071426 241 244 167 -1186.00000000
3.551407098770 -1.953444957733 -2.448714971542 183 191 135 -969.00000000
2.717849969864 -0.163161993027 -2.886307001114 60 65 46 -1276.00000000
2.206008911133 -0.660538017750 -2.704483032227 255 251 205 -1196.00000000
2.495070934296 -0.776198983192 -2.751846075058 254 253 250 -1262.00000000
2.468552112579 -0.661026000977 -2.750716924667 153 165 115 -1285.00000000
2.337508916855 -0.538010001183 -2.756210088730 233 244 189 -1208.00000000
2.438735961914 -0.531479001045 -2.765793085098 255 253 249 -1267.00000000
2.136214971542 -0.924911022186 -2.687180042267 177 204 142 -1267.00000000
2.247879028320 -0.939315974712 -2.705734014511 120 131 92 -1332.00000000
2.075119018555 -0.812210023403 -2.687210083008 216 226 167 -1199.00000000
2.216751098633 -0.786056995392 -2.704910039902 222 231 176 -1168.00000000
2.373488903046 -0.938766002655 -2.719588994980 148 146 106 -1226.00000000
2.456619024277 -0.880051016808 -2.735610961914 181 178 135 -1245.00000000
2.316147089005 -0.782424986362 -2.718369007111 223 245 184 -1244.00000000
2.058578014374 -0.693314015865 -2.692183971405 242 243 204 -1208.00000000
2.082778930664 -0.595351994038 -2.700881958008 214 232 172 -1226.00000000
2.213211059570 -0.536179006100 -2.714766979218 179 196 143 -1235.00000000
2.317092895508 -0.661148011684 -2.718399047852 255 254 255 -1252.00000000
2.711776971817 -0.660781979561 -2.745559930801 208 228 167 -1306.00000000
2.616867065430 -0.884994983673 -2.750961065292 254 251 239 -1294.00000000
2.612930059433 -0.782546997070 -2.753494024277 252 251 247 -1229.00000000
2.714523077011 -0.787491023540 -2.751480102539 255 254 253 -1224.00000000
2.587265014648 -0.662033021450 -2.751266002655 253 251 252 -1126.00000000
2.587814092636 -0.537521004677 -2.758377075195 204 240 176 -1222.00000000
2.712296009064 -0.538712024689 -2.758469104767 212 223 165 -1294.00000000
2.999923944473 -0.661544978619 -2.758559942245 137 163 102 -1368.00000000
2.828659057617 -0.662612974644 -2.750716924667 162 175 131 -1312.00000000
2.837966918945 -0.536696970463 -2.762099981308 250 255 206 -1217.00000000
2.965744018555 -0.537247002125 -2.769057989120 221 247 173 -1221.00000000
2.716995000839 -0.906448006630 -2.743880987167 178 193 143 -1278.00000000
2.968642950058 -0.911635994911 -2.713424921036 221 234 174 -1306.00000000
2.802994012833 -0.975234985352 -2.715897083282 255 253 246 -1018.00000000
2.831130981445 -0.878952026367 -2.743576049805 164 172 121 -1326.00000000
2.860183954239 -0.782211005688 -2.744522094727 171 185 134 -1298.00000000
2.967025995255 -0.795882999897 -2.711136102676 146 152 116 -1312.00000000
2.216690063477 -0.162613004446 -2.649154901505 194 196 145 -1150.00000000
2.464401006699 -0.412642985582 -2.759078979492 230 253 190 -1280.00000000
2.340317010880 -0.419968008995 -2.758132934570 143 163 113 -1262.00000000
2.372208118439 -0.302902013063 -2.752456903458 255 254 254 -1175.00000000
2.259293079376 -0.360763996840 -2.750015020370 202 217 161 -1258.00000000
2.499404907227 -0.314316004515 -2.762192010880 255 255 237 -1201.00000000
2.248519897461 -0.000655999989 -2.775772094727 95 105 76 -1209.00000000
2.497786998749 -0.000838999986 -2.875565052032 148 166 118 -1204.00000000
2.341140985489 -0.162368997931 -2.760238885880 152 162 125 -1265.00000000
2.464615106583 -0.157486006618 -2.767014026642 245 247 196 -1203.00000000
2.342269897461 -0.038956001401 -2.780472040176 102 105 81 -1258.00000000
2.439559936523 -0.053970001638 -2.813095092773 133 139 101 -1181.00000000
2.088759899139 -0.428176999092 -2.711472034454 203 213 153 -1265.00000000
2.193649053574 -0.431564003229 -2.713608026505 207 227 170 -1265.00000000
2.090836048126 -0.267379999161 -2.626327991486 179 183 136 -1265.00000000
2.088577032089 -0.318282991648 -2.724167108536 253 251 235 -1157.00000000
2.187850952148 -0.292129993439 -2.730118036270 254 251 229 -1216.00000000
2.281203985214 -0.251540988684 -2.738723993301 175 182 130 -1267.00000000
2.208939075470 -0.034653000534 -2.646071910858 255 252 250 -949.00000000
2.248641967773 -0.094589002430 -2.717818975449 167 179 135 -1211.00000000
2.118850946426 -0.163619995117 -2.592696905136 117 123 82 -1229.00000000
2.093245983124 -0.035689998418 -2.572799921036 160 170 121 -1250.00000000
2.712874889374 -0.415145993233 -2.765762090683 192 205 146 -1209.00000000
2.577529907227 -0.406875997782 -2.769393920898 255 251 254 -1244.00000000
2.620894908905 -0.314651012421 -2.775527954102 158 161 121 -1283.00000000
2.716018915176 -0.281661987305 -2.771317005157 191 213 154 -1213.00000000
2.966872930527 -0.252974987030 -2.895035028458 123 128 96 -1239.00000000
2.840102910995 -0.412063986063 -2.768326044083 180 218 161 -1332.00000000
2.961868047714 -0.411392003298 -2.775284051895 224 244 188 -1294.00000000
2.825150012970 -0.308914005756 -2.781142950058 255 252 255 -1242.00000000
2.962630987167 -0.295731008053 -2.799666881561 255 251 250 -875.00000000
2.590926885605 -0.065444998443 -2.877547979355 145 162 121 -1221.00000000
2.701400995255 -0.045212000608 -2.905045032501 172 189 137 -1326.00000000
2.593154907227 -0.162247002125 -2.780136108398 167 189 130 -1162.00000000
2.961410999298 -0.157333001494 -2.923934936523 179 191 141 -1312.00000000
2.839127063751 -0.163711994886 -2.904067993164 103 118 90 -1278.00000000
2.839675903320 -0.040878001601 -2.923141002655 243 247 196 -1268.00000000
2.962661981583 -0.033034998924 -2.929915904999 180 207 148 -1275.00000000
2.794357061386 -0.225356996059 -2.836136102676 79 96 72 -1234.00000000
3.717330932617 -0.160812005401 -2.965805053711 170 189 134 -1306.00000000
3.212265014648 -0.661423027515 -2.728499889374 222 233 178 -1293.00000000
3.088943004608 -0.536513984203 -2.775374889374 174 189 139 -1314.00000000
3.217575073242 -0.532333016396 -2.750015020370 216 230 179 -1286.00000000
3.468642950058 -0.538773000240 -2.883132934570 139 141 102 -1273.00000000
3.373032093048 -0.662612974644 -2.751266002655 254 253 222 -1291.00000000
3.437057018280 -0.739760994911 -2.750747919083 249 253 206 -1283.00000000
3.493088006973 -0.631760001183 -2.790572881699 113 117 90 -1258.00000000
3.340500116348 -0.535812020302 -2.776809930801 180 186 134 -1288.00000000
3.205092906952 -0.907851994038 -2.703841924667 204 221 163 -1319.00000000
3.091506958008 -0.909377992153 -2.713881969452 226 243 184 -1294.00000000
3.088881969452 -0.788833975792 -2.714523077011 174 195 151 -1298.00000000
3.215987920761 -0.785233020782 -2.713820934296 232 246 197 -1185.00000000
3.340073108673 -0.912643015385 -2.696486949921 249 250 192 -1262.00000000
3.436691045761 -0.880997002125 -2.699599981308 228 239 188 -1299.00000000
3.340805053711 -0.785965025425 -2.714644908905 240 243 204 -1280.00000000
3.093215942383 -0.688492000103 -2.728194952011 220 238 181 -1267.00000000
3.649857044220 -0.749526977539 -2.746932983398 102 114 76 -1214.00000000
3.749130010605 -0.783249020576 -2.827224969864 119 124 94 -1235.00000000
3.960952997208 -0.794387996197 -2.901809930801 152 173 117 -1290.00000000
3.843369007111 -0.784987986088 -2.884171009064 113 127 94 -1257.00000000
3.874526977539 -0.877640008926 -2.766738891602 138 145 110 -1165.00000000
3.999038934708 -0.908492982388 -2.814589977264 106 117 77 -1211.00000000
3.710494995117 -0.661513984203 -2.876540899277 175 189 136 -1255.00000000
3.592209100723 -0.535567998886 -2.900650024414 177 194 134 -1337.00000000
3.713973999023 -0.535416007042 -2.904922008514 194 214 153 -1312.00000000
3.589493036270 -0.670822024345 -2.812210083008 142 150 111 -1180.00000000
3.961868047714 -0.658859014511 -2.967727899551 220 229 164 -1367.00000000
3.808273077011 -0.696640014648 -2.945540904999 170 197 140 -1262.00000000
3.901351928711 -0.739181995392 -2.962326049805 207 222 161 -1240.00000000
3.834975957870 -0.534439027309 -2.933852910995 179 182 131 -1150.00000000
3.961410999298 -0.538406014442 -2.935532093048 154 162 100 -1342.00000000
3.715713977814 -0.908463001251 -2.704329967499 255 253 253 -1227.00000000
3.527236938477 -0.939284980297 -2.690505981445 250 252 212 -1253.00000000
3.617202997208 -0.891251027584 -2.695419073105 247 254 194 -1270.00000000
3.523514032364 -0.817458987236 -2.720139026642 236 246 191 -1327.00000000
3.727340936661 -0.811294972897 -2.732285022736 86 93 62 -1249.00000000
3.810806035995 -0.944411993027 -2.699356079102 253 254 203 -1299.00000000
3.915572881699 -0.942122995853 -2.689162969589 254 252 249 -1188.00000000
3.216660022736 -0.412124991417 -2.875626087189 116 122 84 -1198.00000000
3.085159063339 -0.296676993370 -2.902451038361 166 191 129 -1322.00000000
3.215621948242 -0.287398993969 -2.924118041992 137 144 108 -1337.00000000
3.078444957733 -0.415358990431 -2.780960083008 195 211 154 -1296.00000000
3.179306030273 -0.442337006330 -2.783309936523 117 123 85 -1163.00000000
3.468369007111 -0.413589000702 -2.923325061798 195 208 154 -1298.00000000
3.318130016327 -0.429183989763 -2.904953002930 109 104 74 -1293.00000000
3.342117071152 -0.281601011753 -2.933273077011 215 225 165 -1311.00000000
3.468673944473 -0.285293996334 -2.937453985214 182 181 138 -1337.00000000
3.274002075195 -0.475998014212 -2.823074102402 143 155 117 -1185.00000000
3.218276977539 -0.171066001058 -2.936477899551 165 177 123 -1316.00000000
3.092575073242 -0.158217996359 -2.932785034180 161 177 126 -1321.00000000
3.086136102676 -0.036148000509 -2.935775995255 152 171 113 -1316.00000000
3.186233997345 -0.067428998649 -2.946671009064 137 156 113 -1327.00000000
3.311568975449 -0.129562005401 -2.948929071426 199 225 159 -1334.00000000
3.404769897461 -0.194503992796 -2.945480108261 184 219 163 -1319.00000000
3.499283075333 -0.162215992808 -2.954238891602 206 234 176 -1304.00000000
3.281021118164 -0.033096000552 -2.959335088730 188 205 151 -1324.00000000
